ply
format ascii 1.0
element vertex 64
property float x
property float y
property float z
end_header
-0.224159762263298035 0.863921701908111572 0.0134132765233516693
-0.0470506548881530762 0.00324232014827430248 0.106024608016014099
0.328051477670669556 0.368807554244995117 -0.103870749473571777
0.458214282989501953 0.00939801614731550217 0.128879204392433167
-0.0815092027187347412 -0.402746617794036865 -0.0308000016957521439
-0.818786025047302246 -0.279934287071228027 0.0833076909184455872
-0.860814213752746582 0.298836976289749146 0.0891735628247261047
0.118911005556583405 -0.60910564661026001 -0.0788964927196502686
-0.270879894495010376 -0.038212701678276062 -0.075488746166229248
0.0662546902894973755 0.218452185392379761 -0.0357905589044094086
0.777330279350280762 0.0109989680349826813 0.126634776592254639
0.111390858888626099 -0.233491167426109314 -0.0256466101855039597
0.546896815299987793 0.0156069090589880943 -0.096518591046333313
-0.0970434918999671936 -0.654253840446472168 -0.00516793644055724144
0.35216212272644043 0.147692784667015076 -0.016371486708521843
0.385809004306793213 -0.144374251365661621 -0.0316669419407844543
0.00709525123238563538 0.0373910851776599884 -0.138298645615577698
0.627287328243255615 0.0869255810976028442 0.0516355037689208984
0.0292724445462226868 -0.0858552753925323486 -0.0247752629220485687
0.217449411749839783 0.285203486680984497 -0.0119859194383025169
0.104659177362918854 0.0819825604557991028 0.0631731376051902771
-0.820180237293243408 0.0121005652472376823 0.219966068863868713
-0.224544674158096313 -0.0599283948540687561 0.076952226459980011
-0.366382330656051636 -0.885415494441986084 0.0630469992756843567
-0.536394655704498291 0.0158531330525875092 0.136028453707695007
0.171583294868469238 -0.152394026517868042 -0.143167838454246521
-0.366277545690536499 0.0770045742392539978 -0.0259931813925504684
0.534588634967803955 -0.0822691544890403748 0.0354965440928936005
0.823790550231933594 0.0750258266925811768 -0.0121926907449960709
0.0131538528949022293 0.564433097839355469 -0.00124396767932921648
0.239531800150871277 -0.308359831571578979 -0.0209021661430597305
0.364782661199569702 0.0283846966922283173 -0.102228440344333649
-0.03154011070728302 -0.237159773707389832 -0.05545058473944664
-0.0270986724644899368 0.327221721410751343 -0.034827403724193573
0.243315115571022034 -0.122063696384429932 -0.018672499805688858
0.678767621517181396 0.0582882724702358246 -0.0753056332468986511
-0.391126751899719238 -0.0677705556154251099 -0.0157520100474357605
-0.353423267602920532 0.890055179595947266 0.0462038628756999969
0.7950020432472229 0.0184779427945613861 -0.149183213710784912
-0.90595853328704834 0.0080641135573387146 0.372673332691192627
-0.223333492875099182 -0.848549306392669678 0.0133774289861321449
0.351094275712966919 -0.348950833082199097 -0.112999603152275085
-0.562334537506103516 0.0399554930627346039 -0.0146081438288092613
-0.0880618467926979065 0.456711262464523315 -0.0227412339299917221
0.215173617005348206 -0.0104875648394227028 -0.102299004793167114
-0.859375238418579102 0.00868593715131282806 0.0642689317464828491
-0.662587642669677734 0.0115030910819768906 0.252139627933502197
0.125103145837783813 0.594842493534088135 -0.102452702820301056
0.996143162250518799 0.0209012310951948166 0.00259231566451489925
-0.0748679935932159424 0.685153007507324219 0.00157363491598516703
-0.383588790893554688 0.00328481895849108696 0.105747073888778687
0.239460945129394531 0.00329188723117113113 0.11257798969745636
-0.664095461368560791 -0.141922026872634888 0.0671263784170150757
-0.71745908260345459 0.153336659073829651 0.0643537417054176331
0.116080231964588165 0.416435986757278442 -0.00683476822450757027
0.11855604499578476 -0.420559465885162354 -0.0066517968662083149
0.698236703872680664 -0.0792159289121627808 -0.0166350491344928741
-0.206090375781059265 0.0932961031794548035 0.0383116155862808228
0.17286546528339386 0.133746221661567688 -0.141429618000984192
-0.112915508449077606 -0.0509630776941776276 -0.0758366212248802185
0.00734771043062210083 -0.53829580545425415 -0.0159597061574459076
-0.231590032577514648 0.720990657806396484 0.00541693298146128654
-0.719512462615966797 0.0217790938913822174 0.116157889366149902
-0.831925094127655029 -0.144305571913719177 0.0715233683586120605
